79.41000366210938 -248.24000549316406 277.6300048828125
79.41000366210938 -248.24000549316406 260.6099853515625
79.41000366210938 -248.24000549316406 243.58999633789062
79.41000366210938 -248.24000549316406 226.57000732421875
79.41000366210938 -248.24000549316406 209.5500030517578
79.41000366210938 -248.24000549316406 192.52999877929688
79.41000366210938 -248.24000549316406 175.50999450683594
79.41000366210938 -248.24000549316406 158.49000549316406
79.41000366210938 -248.24000549316406 141.47000122070312
79.41000366210938 -248.24000549316406 124.44999694824219
79.41000366210938 -248.24000549316406 107.43000030517578
79.41000366210938 -248.24000549316406 90.41000366210938
79.41000366210938 -248.24000549316406 73.38999938964844
79.41000366210938 -248.24000549316406 56.369998931884766
79.41000366210938 -248.24000549316406 39.34000015258789
79.41000366210938 -248.24000549316406 22.31999969482422
79.41000366210938 -248.24000549316406 5.300000190734863
79.41000366210938 -248.24000549316406 -11.720000267028809
79.41000366210938 -248.24000549316406 -28.739999771118164
79.41000366210938 -248.24000549316406 -45.7599983215332
79.41000366210938 -248.24000549316406 -62.779998779296875
79.41000366210938 -248.24000549316406 -79.80000305175781
79.41000366210938 -248.24000549316406 -96.81999969482422
79.41000366210938 -248.24000549316406 -113.83999633789062
79.41000366210938 -248.24000549316406 -130.86000061035156
79.41000366210938 -248.24000549316406 -147.8800048828125
79.41000366210938 -248.24000549316406 -164.89999389648438
79.41000366210938 -248.24000549316406 -181.92999267578125
79.41000366210938 -248.24000549316406 -198.9499969482422
79.41000366210938 -248.24000549316406 -215.97000122070312
79.41000366210938 -248.24000549316406 -232.99000549316406
79.41000366210938 -248.24000549316406 -250.00999450683594
79.41000366210938 -248.24000549316406 -267.0299987792969
79.41000366210938 -248.24000549316406 -284.04998779296875
79.41000366210938 -248.24000549316406 -301.07000732421875
79.41000366210938 -248.24000549316406 -318.0899963378906
79.41000366210938 -248.24000549316406 -335.1099853515625
79.41000366210938 -248.24000549316406 -352.1300048828125
79.41000366210938 -248.24000549316406 -369.1499938964844
79.41000366210938 -248.24000549316406 -386.1700134277344
79.41000366210938 -248.24000549316406 -403.20001220703125
79.41000366210938 -248.24000549316406 -420.2200012207031
79.41000366210938 -248.24000549316406 -437.239990234375
79.41000366210938 -248.24000549316406 -454.260009765625
79.41000366210938 -248.24000549316406 -471.2799987792969
79.41000366210938 -248.24000549316406 -488.29998779296875
79.41000366210938 -248.24000549316406 -505.32000732421875
210.47000122070312 -209.77000427246094 496.94000244140625
210.47000122070312 -209.77000427246094 479.9200134277344
210.47000122070312 -209.77000427246094 462.8999938964844
210.47000122070312 -209.77000427246094 445.8800048828125
210.47000122070312 -209.77000427246094 428.8599853515625
210.47000122070312 -209.77000427246094 411.8399963378906
210.47000122070312 -209.77000427246094 394.82000732421875
210.47000122070312 -209.77000427246094 377.79998779296875
210.47000122070312 -209.77000427246094 360.7799987792969
210.47000122070312 -209.77000427246094 343.760009765625
210.47000122070312 -209.77000427246094 326.739990234375
210.47000122070312 -209.77000427246094 309.7200012207031
210.47000122070312 -209.77000427246094 292.70001220703125
210.47000122070312 -209.77000427246094 275.6700134277344
210.47000122070312 -209.77000427246094 258.6499938964844
210.47000122070312 -209.77000427246094 241.6300048828125
210.47000122070312 -209.77000427246094 224.61000061035156
210.47000122070312 -209.77000427246094 207.58999633789062
210.47000122070312 -209.77000427246094 190.57000732421875
210.47000122070312 -209.77000427246094 173.5500030517578
210.47000122070312 -209.77000427246094 156.52999877929688
210.47000122070312 -209.77000427246094 139.50999450683594
210.47000122070312 -209.77000427246094 122.48999786376953
210.47000122070312 -209.77000427246094 105.47000122070312
210.47000122070312 -209.77000427246094 88.44999694824219
210.47000122070312 -209.77000427246094 71.43000030517578
210.47000122070312 -209.77000427246094 54.40999984741211
210.47000122070312 -209.77000427246094 37.380001068115234
210.47000122070312 -209.77000427246094 20.360000610351562
210.47000122070312 -209.77000427246094 3.3399999141693115
210.47000122070312 -209.77000427246094 -13.680000305175781
210.47000122070312 -209.77000427246094 -30.700000762939453
210.47000122070312 -209.77000427246094 -47.720001220703125
210.47000122070312 -209.77000427246094 -64.73999786376953
210.47000122070312 -209.77000427246094 -81.76000213623047
210.47000122070312 -209.77000427246094 -98.77999877929688
210.47000122070312 -209.77000427246094 -115.80000305175781
210.47000122070312 -209.77000427246094 -132.82000732421875
210.47000122070312 -209.77000427246094 -149.83999633789062
210.47000122070312 -209.77000427246094 -166.86000061035156
210.47000122070312 -209.77000427246094 -183.88999938964844
210.47000122070312 -209.77000427246094 -200.91000366210938
210.47000122070312 -209.77000427246094 -217.92999267578125
210.47000122070312 -209.77000427246094 -234.9499969482422
210.47000122070312 -209.77000427246094 -251.97000122070312
210.47000122070312 -209.77000427246094 -268.989990234375
210.47000122070312 -209.77000427246094 -286.010009765625
210.47000122070312 -209.77000427246094 -303.0299987792969
210.47000122070312 -209.77000427246094 -320.04998779296875
210.47000122070312 -209.77000427246094 -337.07000732421875
210.47000122070312 -209.77000427246094 -354.0899963378906
210.47000122070312 -209.77000427246094 -371.1099853515625
210.47000122070312 -209.77000427246094 -388.1300048828125
210.47000122070312 -209.77000427246094 -405.1600036621094
210.47000122070312 -209.77000427246094 -422.17999267578125
210.47000122070312 -209.77000427246094 -439.20001220703125
210.47000122070312 -209.77000427246094 -456.2200012207031
210.47000122070312 -209.77000427246094 -473.239990234375
210.47000122070312 -209.77000427246094 -490.260009765625
210.47000122070312 -209.77000427246094 -507.2799987792969
326.8500061035156 -209.07000732421875 498.4200134277344
326.8500061035156 -209.07000732421875 481.3999938964844
326.8500061035156 -209.07000732421875 464.3800048828125
326.8500061035156 -209.07000732421875 447.3599853515625
326.8500061035156 -209.07000732421875 430.3399963378906
326.8500061035156 -209.07000732421875 413.32000732421875
326.8500061035156 -209.07000732421875 396.29998779296875
326.8500061035156 -209.07000732421875 379.2799987792969
326.8500061035156 -209.07000732421875 362.260009765625
326.8500061035156 -209.07000732421875 345.239990234375
326.8500061035156 -209.07000732421875 328.2200012207031
326.8500061035156 -209.07000732421875 311.20001220703125
326.8500061035156 -209.07000732421875 294.17999267578125
326.8500061035156 -209.07000732421875 277.1499938964844
326.8500061035156 -209.07000732421875 260.1300048828125
326.8500061035156 -209.07000732421875 243.11000061035156
326.8500061035156 -209.07000732421875 226.08999633789062
326.8500061035156 -209.07000732421875 209.07000732421875
326.8500061035156 -209.07000732421875 192.0500030517578
326.8500061035156 -209.07000732421875 175.02999877929688
326.8500061035156 -209.07000732421875 158.00999450683594
326.8500061035156 -209.07000732421875 140.99000549316406
326.8500061035156 -209.07000732421875 123.97000122070312
326.8500061035156 -209.07000732421875 106.94999694824219
326.8500061035156 -209.07000732421875 89.93000030517578
326.8500061035156 -209.07000732421875 72.91000366210938
326.8500061035156 -209.07000732421875 55.88999938964844
326.8500061035156 -209.07000732421875 38.86000061035156
326.8500061035156 -209.07000732421875 21.84000015258789
326.8500061035156 -209.07000732421875 4.820000171661377
326.8500061035156 -209.07000732421875 -12.199999809265137
326.8500061035156 -209.07000732421875 -29.219999313354492
326.8500061035156 -209.07000732421875 -46.2400016784668
326.8500061035156 -209.07000732421875 -63.2599983215332
326.8500061035156 -209.07000732421875 -80.27999877929688
326.8500061035156 -209.07000732421875 -97.30000305175781
326.8500061035156 -209.07000732421875 -114.31999969482422
326.8500061035156 -209.07000732421875 -131.33999633789062
326.8500061035156 -209.07000732421875 -148.36000061035156
326.8500061035156 -209.07000732421875 -165.3800048828125
326.8500061035156 -209.07000732421875 -182.41000366210938
326.8500061035156 -209.07000732421875 -199.42999267578125
326.8500061035156 -209.07000732421875 -216.4499969482422
326.8500061035156 -209.07000732421875 -233.47000122070312
326.8500061035156 -209.07000732421875 -250.49000549316406
326.8500061035156 -209.07000732421875 -267.510009765625
326.8500061035156 -209.07000732421875 -284.5299987792969
326.8500061035156 -209.07000732421875 -301.54998779296875
326.8500061035156 -209.07000732421875 -318.57000732421875
326.8500061035156 -209.07000732421875 -335.5899963378906
326.8500061035156 -209.07000732421875 -352.6099853515625
326.8500061035156 -209.07000732421875 -369.6300048828125
326.8500061035156 -209.07000732421875 -386.6499938964844
326.8500061035156 -209.07000732421875 -403.67999267578125
326.8500061035156 -209.07000732421875 -420.70001220703125
326.8500061035156 -209.07000732421875 -437.7200012207031
326.8500061035156 -209.07000732421875 -454.739990234375
326.8500061035156 -209.07000732421875 -471.760009765625
326.8500061035156 -209.07000732421875 -488.7799987792969
326.8500061035156 -209.07000732421875 -505.79998779296875
443.6000061035156 -194.16000366210938 516.6699829101562
443.6000061035156 -194.1199951171875 499.6499938964844
443.6300048828125 -194.0800018310547 482.6300048828125
443.6600036621094 -194.0399932861328 465.6099853515625
443.70001220703125 -194.02000427246094 448.5899963378906
443.75 -194.00999450683594 431.57000732421875
443.79998779296875 -194.00999450683594 414.54998779296875
443.8500061035156 -194.02000427246094 397.5299987792969
443.8900146484375 -194.0399932861328 380.510009765625
443.92999267578125 -194.0800018310547 363.489990234375
443.9599914550781 -194.1199951171875 346.4700012207031
443.9599914550781 -194.1699981689453 329.45001220703125
443.95001220703125 -194.22000122070312 312.42999267578125
443.9200134277344 -194.25999450683594 295.3999938964844
443.8800048828125 -194.2899932861328 278.3800048828125
443.8399963378906 -194.30999755859375 261.3599853515625
443.79998779296875 -194.30999755859375 244.33999633789062
443.75 -194.2899932861328 227.32000732421875
443.7200012207031 -194.25999450683594 210.3000030517578
443.7200012207031 -194.2100067138672 193.27999877929688
443.75 -194.1699981689453 176.25999450683594
443.79998779296875 -194.16000366210938 159.24000549316406
443.8500061035156 -194.17999267578125 142.22000122070312
443.8800048828125 -194.22000122070312 125.19999694824219
443.9200134277344 -194.25 108.18000030517578
443.95001220703125 -194.2899932861328 91.16000366210938
443.9599914550781 -194.33999633789062 74.13999938964844
443.9599914550781 -194.3800048828125 57.11000061035156
443.94000244140625 -194.42999267578125 40.09000015258789
443.9200134277344 -194.47000122070312 23.06999969482422
443.8900146484375 -194.5 6.050000190734863
443.8500061035156 -194.52000427246094 -10.970000267028809
443.79998779296875 -194.52000427246094 -27.989999771118164
443.75 -194.52000427246094 -45.0099983215332
443.7099914550781 -194.52000427246094 -62.029998779296875
443.6600036621094 -194.52000427246094 -79.05000305175781
443.6199951171875 -194.50999450683594 -96.06999969482422
443.5799865722656 -194.49000549316406 -113.08999633789062
443.5400085449219 -194.4600067138672 -130.11000061035156
443.5 -194.42999267578125 -147.1300048828125
443.4700012207031 -194.39999389648438 -164.16000366210938
443.44000244140625 -194.35000610351562 -181.17999267578125
443.42999267578125 -194.3000030517578 -198.1999969482422
443.42999267578125 -194.25 -215.22000122070312
443.4599914550781 -194.2100067138672 -232.24000549316406
443.5 -194.17999267578125 -249.25999450683594
443.54998779296875 -194.16000366210938 -266.2799987792969
443.5899963378906 -194.17999267578125 -281.29998779296875
443.6499938964844 -194.1999969482422 -300.32000732421875
443.67999267578125 -194.22999572753906 -315.3399963378906
443.7200012207031 -194.27000427246094 -334.3599853515625
443.75 -194.30999755859375 -351.3800048828125
443.7799987792969 -194.33999633789062 -368.3999938964844
443.80999755859375 -194.3800048828125 -385.42999267578125
443.8500061035156 -194.4199981689453 -402.45001220703125
443.8900146484375 -194.44000244140625 -417.4599914550781
443.92999267578125 -194.47000122070312 -436.489990234375
443.9599914550781 -194.49000549316406 -451.510009765625
444.0 -194.47999572753906 -470.5299987792969
444.04998779296875 -194.4600067138672 -487.54998779296875
-492.42999267578125 -230.16000366210938 497.6000061035156
-492.42999267578125 -230.16000366210938 480.5799865722656
-492.42999267578125 -230.16000366210938 463.55999755859375
-492.42999267578125 -230.16000366210938 446.5400085449219
-492.42999267578125 -230.16000366210938 429.5199890136719
-492.42999267578125 -230.16000366210938 412.5
-492.42999267578125 -230.16000366210938 395.4800109863281
-492.42999267578125 -230.16000366210938 378.4599914550781
-492.42999267578125 -230.16000366210938 361.44000244140625
-492.42999267578125 -230.16000366210938 344.4200134277344
-492.42999267578125 -230.16000366210938 327.3999938964844
-492.42999267578125 -230.16000366210938 310.3800048828125
-492.42999267578125 -230.16000366210938 293.3599853515625
-492.42999267578125 -230.16000366210938 276.3299865722656
-492.42999267578125 -230.16000366210938 259.30999755859375
-492.42999267578125 -230.16000366210938 242.2899932861328
-492.42999267578125 -230.16000366210938 225.27000427246094
-492.42999267578125 -230.16000366210938 208.25
-492.42999267578125 -230.16000366210938 191.22999572753906
-492.42999267578125 -230.16000366210938 174.2100067138672
-492.42999267578125 -230.16000366210938 157.19000244140625
-492.42999267578125 -230.16000366210938 140.1699981689453
-492.42999267578125 -230.16000366210938 123.1500015258789
-492.42999267578125 -230.16000366210938 106.12999725341797
-492.42999267578125 -230.16000366210938 89.11000061035156
-492.42999267578125 -230.16000366210938 72.08999633789062
-492.42999267578125 -230.16000366210938 55.06999969482422
-492.42999267578125 -230.16000366210938 38.040000915527344
-492.42999267578125 -230.16000366210938 21.020000457763672
-492.42999267578125 -230.16000366210938 4.0
-492.42999267578125 -230.16000366210938 -13.020000457763672
-492.42999267578125 -230.16000366210938 -30.040000915527344
-492.42999267578125 -230.16000366210938 -47.060001373291016
-492.42999267578125 -230.16000366210938 -64.08000183105469
-492.42999267578125 -230.16000366210938 -81.0999984741211
-492.42999267578125 -230.16000366210938 -98.12000274658203
-492.42999267578125 -230.16000366210938 -115.13999938964844
-492.42999267578125 -230.16000366210938 -132.16000366210938
-492.42999267578125 -230.16000366210938 -149.17999267578125
-492.42999267578125 -230.16000366210938 -166.1999969482422
-492.42999267578125 -230.16000366210938 -183.22999572753906
-492.42999267578125 -230.16000366210938 -200.25
-492.42999267578125 -230.16000366210938 -217.27000427246094
-492.42999267578125 -230.16000366210938 -234.2899932861328
-492.42999267578125 -230.16000366210938 -251.30999755859375
-492.42999267578125 -230.16000366210938 -268.3299865722656
-492.42999267578125 -230.16000366210938 -285.3500061035156
-492.42999267578125 -230.16000366210938 -302.3699951171875
-492.42999267578125 -230.16000366210938 -319.3900146484375
-492.42999267578125 -230.16000366210938 -336.4100036621094
-492.42999267578125 -230.16000366210938 -353.42999267578125
-492.42999267578125 -230.16000366210938 -370.45001220703125
-492.42999267578125 -230.16000366210938 -387.4700012207031
-492.42999267578125 -230.16000366210938 -404.5
-492.42999267578125 -230.16000366210938 -421.5199890136719
-492.42999267578125 -230.16000366210938 -438.5400085449219
-492.42999267578125 -230.16000366210938 -455.55999755859375
-492.42999267578125 -230.16000366210938 -472.5799865722656
-492.42999267578125 -230.16000366210938 -489.6000061035156
-492.42999267578125 -230.16000366210938 -506.6199951171875
-368.92999267578125 -210.22999572753906 500.5299987792969
-368.92999267578125 -210.22999572753906 483.510009765625
-368.92999267578125 -210.22999572753906 466.489990234375
-368.92999267578125 -210.22999572753906 449.4700012207031
-368.92999267578125 -210.22999572753906 432.45001220703125
-368.92999267578125 -210.22999572753906 415.42999267578125
-368.92999267578125 -210.22999572753906 398.4100036621094
-368.92999267578125 -210.22999572753906 381.3900146484375
-368.92999267578125 -210.22999572753906 364.3699951171875
-368.92999267578125 -210.22999572753906 347.3500061035156
-368.92999267578125 -210.22999572753906 330.3299865722656
-368.92999267578125 -210.22999572753906 313.30999755859375
-368.92999267578125 -210.22999572753906 296.2900085449219
-368.92999267578125 -210.22999572753906 279.260009765625
-368.92999267578125 -210.22999572753906 262.239990234375
-368.92999267578125 -210.22999572753906 245.22000122070312
-368.92999267578125 -210.22999572753906 228.1999969482422
-368.92999267578125 -210.22999572753906 211.17999267578125
-368.92999267578125 -210.22999572753906 194.16000366210938
-368.92999267578125 -210.22999572753906 177.13999938964844
-368.92999267578125 -210.22999572753906 160.1199951171875
-368.92999267578125 -210.22999572753906 143.10000610351562
-368.92999267578125 -210.22999572753906 126.08000183105469
-368.92999267578125 -210.22999572753906 109.05999755859375
-368.92999267578125 -210.22999572753906 92.04000091552734
-368.92999267578125 -210.22999572753906 75.0199966430664
-368.92999267578125 -210.22999572753906 58.0
-368.92999267578125 -210.22999572753906 40.970001220703125
-368.92999267578125 -210.22999572753906 23.950000762939453
-368.92999267578125 -210.22999572753906 6.929999828338623
-368.92999267578125 -210.22999572753906 -10.09000015258789
-368.92999267578125 -210.22999572753906 -27.110000610351562
-368.92999267578125 -210.22999572753906 -44.130001068115234
-368.92999267578125 -210.22999572753906 -61.150001525878906
-368.92999267578125 -210.22999572753906 -78.16999816894531
-368.92999267578125 -210.22999572753906 -95.19000244140625
-368.92999267578125 -210.22999572753906 -112.20999908447266
-368.92999267578125 -210.22999572753906 -129.22999572753906
-368.92999267578125 -210.22999572753906 -146.25
-368.92999267578125 -210.22999572753906 -163.27000427246094
-368.92999267578125 -210.22999572753906 -180.3000030517578
-368.92999267578125 -210.22999572753906 -197.32000732421875
-368.92999267578125 -210.22999572753906 -214.33999633789062
-368.92999267578125 -210.22999572753906 -231.36000061035156
-368.92999267578125 -210.22999572753906 -248.3800048828125
-368.92999267578125 -210.22999572753906 -265.3999938964844
-368.92999267578125 -210.22999572753906 -282.4200134277344
-368.92999267578125 -210.22999572753906 -299.44000244140625
-368.92999267578125 -210.22999572753906 -316.4599914550781
-368.92999267578125 -210.22999572753906 -333.4800109863281
-368.92999267578125 -210.22999572753906 -350.5
-368.92999267578125 -210.22999572753906 -367.5199890136719
-368.92999267578125 -210.22999572753906 -384.5400085449219
-368.92999267578125 -210.22999572753906 -401.57000732421875
-368.92999267578125 -210.22999572753906 -418.5899963378906
-368.92999267578125 -210.22999572753906 -435.6099853515625
-368.92999267578125 -210.22999572753906 -452.6300048828125
-368.92999267578125 -210.22999572753906 -469.6499938964844
-368.92999267578125 -210.22999572753906 -486.6700134277344
-368.92999267578125 -210.22999572753906 -503.69000244140625
-245.64999389648438 -190.49000549316406 501.4800109863281
-245.64999389648438 -190.49000549316406 484.4599914550781
-245.64999389648438 -190.49000549316406 467.44000244140625
-245.64999389648438 -190.49000549316406 450.4200134277344
-245.64999389648438 -190.49000549316406 433.3999938964844
-245.64999389648438 -190.49000549316406 416.3800048828125
-245.64999389648438 -190.49000549316406 399.3599853515625
-245.64999389648438 -190.49000549316406 382.3399963378906
-245.64999389648438 -190.49000549316406 365.32000732421875
-245.64999389648438 -190.49000549316406 348.29998779296875
-245.64999389648438 -190.49000549316406 331.2799987792969
-245.64999389648438 -190.49000549316406 314.260009765625
-245.64999389648438 -190.49000549316406 297.2300109863281
-245.64999389648438 -190.49000549316406 280.2099914550781
-245.64999389648438 -190.49000549316406 263.19000244140625
-245.64999389648438 -190.49000549316406 246.1699981689453
-245.64999389648438 -190.49000549316406 229.14999389648438
-245.64999389648438 -190.49000549316406 212.1300048828125
-245.64999389648438 -190.49000549316406 195.11000061035156
-245.64999389648438 -190.49000549316406 178.08999633789062
-245.64999389648438 -190.49000549316406 161.07000732421875
-245.64999389648438 -190.49000549316406 144.0500030517578
-245.64999389648438 -190.49000549316406 127.02999877929688
-245.64999389648438 -190.49000549316406 110.01000213623047
-245.64999389648438 -190.49000549316406 92.98999786376953
-245.64999389648438 -190.49000549316406 75.95999908447266
-245.64999389648438 -190.49000549316406 58.939998626708984
-245.64999389648438 -190.49000549316406 41.91999816894531
-245.64999389648438 -190.49000549316406 24.899999618530273
-245.64999389648438 -190.49000549316406 7.880000114440918
-245.64999389648438 -190.49000549316406 -9.140000343322754
-245.64999389648438 -190.49000549316406 -26.030000686645508
-245.64999389648438 -190.49000549316406 -42.93000030517578
-245.64999389648438 -190.49000549316406 -59.95000076293945
-245.64999389648438 -190.49000549316406 -76.97000122070312
-245.64999389648438 -190.49000549316406 -93.98999786376953
-245.64999389648438 -190.49000549316406 -110.87999725341797
-245.64999389648438 -190.49000549316406 -127.9000015258789
-245.64999389648438 -190.49000549316406 -144.9199981689453
-245.64999389648438 -190.49000549316406 -161.9499969482422
-245.64999389648438 -190.49000549316406 -178.97000122070312
-245.64999389648438 -190.49000549316406 -195.99000549316406
-245.64999389648438 -190.49000549316406 -213.00999450683594
-245.64999389648438 -190.49000549316406 -230.02999877929688
-245.64999389648438 -190.49000549316406 -247.0500030517578
-245.64999389648438 -190.49000549316406 -264.07000732421875
-245.64999389648438 -190.49000549316406 -281.0899963378906
-245.64999389648438 -190.49000549316406 -298.1099853515625
-245.64999389648438 -190.49000549316406 -315.1300048828125
-245.64999389648438 -190.49000549316406 -332.1499938964844
-245.64999389648438 -190.49000549316406 -349.1700134277344
-245.64999389648438 -190.49000549316406 -366.19000244140625
-245.64999389648438 -190.49000549316406 -383.2200012207031
-245.64999389648438 -190.49000549316406 -400.239990234375
-245.64999389648438 -190.49000549316406 -417.260009765625
-245.64999389648438 -190.49000549316406 -434.1499938964844
-245.64999389648438 -190.49000549316406 -451.07000732421875
-245.64999389648438 -190.49000549316406 -467.9700012207031
-245.64999389648438 -190.49000549316406 -484.989990234375
-245.64999389648438 -190.49000549316406 -502.010009765625
-121.7699966430664 -171.02999877929688 502.2699890136719
-121.7699966430664 -171.02999877929688 485.25
-121.7699966430664 -171.02999877929688 468.2300109863281
-121.7699966430664 -171.02999877929688 451.2099914550781
-121.7699966430664 -171.02999877929688 434.19000244140625
-121.7699966430664 -171.02999877929688 417.1700134277344
-121.7699966430664 -171.02999877929688 400.1499938964844
-121.7699966430664 -171.02999877929688 383.1300048828125
-121.7699966430664 -171.02999877929688 366.1099853515625
-121.7699966430664 -171.02999877929688 349.0899963378906
-121.7699966430664 -171.02999877929688 332.07000732421875
-121.7699966430664 -171.02999877929688 315.04998779296875
-121.7699966430664 -171.02999877929688 298.0299987792969
-121.7699966430664 -171.02999877929688 281.0
-121.7699966430664 -171.02999877929688 263.9800109863281
-121.7699966430664 -171.02999877929688 246.9600067138672
-121.7699966430664 -171.02999877929688 229.94000244140625
-121.7699966430664 -171.02999877929688 212.9199981689453
-121.7699966430664 -171.02999877929688 195.89999389648438
-121.7699966430664 -171.02999877929688 178.8800048828125
-121.7699966430664 -171.02999877929688 161.86000061035156
-121.7699966430664 -171.02999877929688 144.83999633789062
-121.7699966430664 -171.02999877929688 127.81999969482422
-121.7699966430664 -171.02999877929688 110.80000305175781
-121.7699966430664 -171.02999877929688 93.77999877929688
-121.7699966430664 -171.02999877929688 76.76000213623047
-121.7699966430664 -171.02999877929688 59.72999954223633
-121.7699966430664 -171.02999877929688 42.709999084472656
-121.7699966430664 -171.02999877929688 25.690000534057617
-121.7699966430664 -171.02999877929688 8.670000076293945
-121.7699966430664 -171.02999877929688 -8.350000381469727
-121.7699966430664 -171.02999877929688 -25.3700008392334
-121.7699966430664 -171.02999877929688 -42.38999938964844
-121.7699966430664 -171.02999877929688 -59.40999984741211
-121.7699966430664 -171.02999877929688 -76.43000030517578
-121.7699966430664 -171.02999877929688 -93.44999694824219
-121.7699966430664 -171.02999877929688 -110.47000122070312
-121.7699966430664 -171.02999877929688 -127.48999786376953
-121.7699966430664 -171.02999877929688 -144.50999450683594
-121.7699966430664 -171.02999877929688 -161.5399932861328
-121.7699966430664 -171.02999877929688 -178.55999755859375
-121.7699966430664 -171.02999877929688 -195.5800018310547
-121.7699966430664 -171.02999877929688 -212.60000610351562
-121.7699966430664 -171.02999877929688 -229.6199951171875
-121.7699966430664 -171.02999877929688 -246.63999938964844
-121.7699966430664 -171.02999877929688 -263.6600036621094
-121.7699966430664 -171.02999877929688 -280.67999267578125
-121.7699966430664 -171.02999877929688 -297.57000732421875
-121.7699966430664 -171.02999877929688 -314.5899963378906
-121.7699966430664 -171.02999877929688 -331.489990234375
-121.7699966430664 -171.02999877929688 -348.510009765625
-121.7699966430664 -171.02999877929688 -365.5299987792969
-121.7699966430664 -171.02999877929688 -382.54998779296875
-121.7699966430664 -171.02999877929688 -399.5799865722656
-121.7699966430664 -171.02999877929688 -416.6000061035156
-121.7699966430664 -171.02999877929688 -433.4800109863281
-121.7699966430664 -171.02999877929688 -450.5
-121.7699966430664 -171.02999877929688 -467.5199890136719
-121.7699966430664 -171.02999877929688 -484.5400085449219
-121.7699966430664 -171.02999877929688 -501.55999755859375
1.7100000381469727 -150.6300048828125 497.25
1.7100000381469727 -150.6300048828125 480.2300109863281
1.7100000381469727 -150.6300048828125 463.2099914550781
1.7100000381469727 -150.6300048828125 446.19000244140625
1.7100000381469727 -150.6300048828125 429.1700134277344
1.7100000381469727 -150.6300048828125 412.1499938964844
1.7100000381469727 -150.6300048828125 395.1300048828125
1.7100000381469727 -150.6300048828125 378.1099853515625
1.7100000381469727 -150.6300048828125 361.0899963378906
1.7100000381469727 -150.6300048828125 344.07000732421875
1.7100000381469727 -150.6300048828125 327.04998779296875
1.7100000381469727 -150.6300048828125 310.0299987792969
1.7100000381469727 -150.6300048828125 293.010009765625
1.7100000381469727 -150.6300048828125 275.9800109863281
1.7100000381469727 -150.6300048828125 258.9599914550781
1.7100000381469727 -150.6300048828125 241.94000244140625
1.7100000381469727 -150.6300048828125 224.9199981689453
1.7100000381469727 -150.6300048828125 207.89999389648438
1.7100000381469727 -150.6300048828125 190.8800048828125
1.7100000381469727 -150.6300048828125 173.86000061035156
1.7100000381469727 -150.6300048828125 156.83999633789062
1.7100000381469727 -150.6300048828125 139.82000732421875
1.7100000381469727 -150.6300048828125 122.80000305175781
1.7100000381469727 -150.6300048828125 105.77999877929688
1.7100000381469727 -150.6300048828125 88.76000213623047
1.7100000381469727 -150.6300048828125 71.73999786376953
1.7100000381469727 -150.6300048828125 54.720001220703125
1.7100000381469727 -150.6300048828125 37.689998626708984
1.7100000381469727 -150.6300048828125 20.670000076293945
1.7100000381469727 -150.6300048828125 3.6500000953674316
1.7100000381469727 -150.6300048828125 -13.369999885559082
1.7100000381469727 -150.6300048828125 -30.389999389648438
1.7100000381469727 -150.6300048828125 -47.40999984741211
1.7100000381469727 -150.6300048828125 -64.43000030517578
1.7100000381469727 -150.6300048828125 -81.44999694824219
1.7100000381469727 -150.6300048828125 -98.47000122070312
1.7100000381469727 -150.6300048828125 -115.48999786376953
1.7100000381469727 -150.6300048828125 -132.50999450683594
1.7100000381469727 -150.6300048828125 -149.52999877929688
1.7100000381469727 -150.6300048828125 -166.5500030517578
1.7100000381469727 -150.6300048828125 -183.5800018310547
1.7100000381469727 -150.6300048828125 -200.60000610351562
1.7100000381469727 -150.6300048828125 -217.6199951171875
1.7100000381469727 -150.6300048828125 -234.63999938964844
1.7100000381469727 -150.6300048828125 -251.66000366210938
1.7100000381469727 -150.6300048828125 -268.67999267578125
1.7100000381469727 -150.6300048828125 -285.70001220703125
1.7100000381469727 -150.6300048828125 -302.7200012207031
1.7100000381469727 -150.6300048828125 -319.739990234375
1.7100000381469727 -150.6300048828125 -336.760009765625
1.7100000381469727 -150.6300048828125 -353.7799987792969
1.7100000381469727 -150.6300048828125 -370.79998779296875
1.7100000381469727 -150.6300048828125 -387.82000732421875
1.7100000381469727 -150.6300048828125 -404.8500061035156
1.7100000381469727 -150.6300048828125 -421.8699951171875
1.7100000381469727 -150.6300048828125 -438.8900146484375
1.7100000381469727 -150.6300048828125 -455.9100036621094
1.7100000381469727 -150.6300048828125 -472.92999267578125
1.7100000381469727 -150.6300048828125 -489.95001220703125
1.7100000381469727 -150.6300048828125 -506.9700012207031
124.97000122070312 -131.25 493.6499938964844
124.97000122070312 -131.25 476.6300048828125
124.97000122070312 -131.25 459.6099853515625
124.97000122070312 -131.25 442.5899963378906
124.97000122070312 -131.25 425.57000732421875
124.97000122070312 -131.25 408.54998779296875
124.97000122070312 -131.25 391.5299987792969
124.97000122070312 -131.25 374.510009765625
124.97000122070312 -131.25 357.489990234375
124.97000122070312 -131.25 340.4700012207031
124.97000122070312 -131.25 323.45001220703125
124.97000122070312 -131.25 306.42999267578125
124.97000122070312 -131.25 289.4100036621094
124.97000122070312 -131.25 272.3800048828125
124.97000122070312 -131.25 255.36000061035156
124.97000122070312 -131.25 238.33999633789062
124.97000122070312 -131.25 221.32000732421875
124.97000122070312 -131.25 204.3000030517578
124.97000122070312 -131.25 187.27999877929688
124.97000122070312 -131.25 170.25999450683594
124.97000122070312 -131.25 153.24000549316406
124.97000122070312 -131.25 136.22000122070312
124.97000122070312 -131.25 119.19999694824219
124.97000122070312 -131.25 102.18000030517578
124.97000122070312 -131.25 85.16000366210938
124.97000122070312 -131.25 68.13999938964844
124.97000122070312 -131.25 51.119998931884766
124.97000122070312 -131.25 34.09000015258789
124.97000122070312 -131.25 17.06999969482422
124.97000122070312 -131.25 0.05000000074505806
124.97000122070312 -131.25 -16.969999313354492
124.97000122070312 -131.25 -33.9900016784668
124.97000122070312 -131.25 -51.0099983215332
124.97000122070312 -131.25 -68.02999877929688
124.97000122070312 -131.25 -85.05000305175781
124.97000122070312 -131.25 -102.06999969482422
124.97000122070312 -131.25 -119.08999633789062
124.97000122070312 -131.25 -136.11000061035156
124.97000122070312 -131.25 -153.1300048828125
124.97000122070312 -131.25 -170.14999389648438
124.97000122070312 -131.25 -187.17999267578125
124.97000122070312 -131.25 -204.1999969482422
124.97000122070312 -131.25 -221.22000122070312
124.97000122070312 -131.25 -238.24000549316406
124.97000122070312 -131.25 -255.25999450683594
124.97000122070312 -131.25 -272.2799987792969
124.97000122070312 -131.25 -289.29998779296875
124.97000122070312 -131.25 -306.32000732421875
124.97000122070312 -131.25 -323.3399963378906
124.97000122070312 -131.25 -340.3599853515625
124.97000122070312 -131.25 -357.3800048828125
124.97000122070312 -131.25 -374.3999938964844
124.97000122070312 -131.25 -391.4200134277344
124.97000122070312 -131.25 -408.45001220703125
124.97000122070312 -131.25 -425.4700012207031
124.97000122070312 -131.25 -442.489990234375
124.97000122070312 -131.25 -459.510009765625
124.97000122070312 -131.25 -476.5299987792969
124.97000122070312 -131.25 -493.54998779296875
124.97000122070312 -131.25 -510.57000732421875
248.14999389648438 -111.87000274658203 498.3399963378906
248.14999389648438 -111.87000274658203 481.010009765625
248.14999389648438 -111.87000274658203 463.989990234375
248.14999389648438 -111.87000274658203 446.9700012207031
248.14999389648438 -111.87000274658203 429.95001220703125
248.14999389648438 -111.87000274658203 412.92999267578125
248.14999389648438 -111.87000274658203 395.9100036621094
248.14999389648438 -111.87000274658203 378.8900146484375
248.14999389648438 -111.87000274658203 361.8699951171875
248.14999389648438 -111.87000274658203 344.8500061035156
248.14999389648438 -111.87000274658203 327.8299865722656
248.14999389648438 -111.87000274658203 310.80999755859375
248.14999389648438 -111.87000274658203 293.7900085449219
248.14999389648438 -111.87000274658203 276.760009765625
248.14999389648438 -111.87000274658203 259.739990234375
248.14999389648438 -111.87000274658203 242.72000122070312
248.14999389648438 -111.87000274658203 225.6999969482422
248.14999389648438 -111.87000274658203 208.67999267578125
248.14999389648438 -111.87000274658203 191.66000366210938
248.14999389648438 -111.87000274658203 174.63999938964844
248.14999389648438 -111.87000274658203 157.6199951171875
248.14999389648438 -111.87000274658203 140.60000610351562
248.14999389648438 -111.87000274658203 123.58000183105469
248.14999389648438 -111.87000274658203 106.55999755859375
248.14999389648438 -111.87000274658203 89.54000091552734
248.14999389648438 -111.87000274658203 72.5199966430664
248.14999389648438 -111.87000274658203 55.5
248.14999389648438 -111.87000274658203 38.470001220703125
248.14999389648438 -111.87000274658203 21.450000762939453
248.14999389648438 -111.87000274658203 4.429999828338623
248.14999389648438 -111.87000274658203 -12.59000015258789
248.14999389648438 -111.87000274658203 -29.610000610351562
248.14999389648438 -111.87000274658203 -46.630001068115234
248.14999389648438 -111.87000274658203 -63.650001525878906
248.14999389648438 -111.87000274658203 -80.66999816894531
248.14999389648438 -111.87000274658203 -97.69000244140625
248.14999389648438 -111.87000274658203 -114.70999908447266
248.14999389648438 -111.87000274658203 -131.72999572753906
248.14999389648438 -111.87000274658203 -148.75
248.14999389648438 -111.87000274658203 -165.77000427246094
248.14999389648438 -111.87000274658203 -182.8000030517578
248.14999389648438 -111.87000274658203 -199.82000732421875
248.14999389648438 -111.87000274658203 -216.83999633789062
248.14999389648438 -111.87000274658203 -233.86000061035156
248.14999389648438 -111.87000274658203 -250.8800048828125
248.14999389648438 -111.87000274658203 -267.8999938964844
248.14999389648438 -111.87000274658203 -284.9200134277344
248.14999389648438 -111.87000274658203 -301.94000244140625
248.14999389648438 -111.87000274658203 -318.9599914550781
248.14999389648438 -111.87000274658203 -335.9800109863281
248.14999389648438 -111.87000274658203 -353.0
248.14999389648438 -111.87000274658203 -370.0199890136719
248.14999389648438 -111.87000274658203 -387.0400085449219
248.14999389648438 -111.87000274658203 -404.07000732421875
248.14999389648438 -111.87000274658203 -421.0899963378906
248.14999389648438 -111.87000274658203 -438.1099853515625
248.14999389648438 -111.87000274658203 -455.1300048828125
248.14999389648438 -111.87000274658203 -472.1499938964844
248.14999389648438 -111.87000274658203 -489.1700134277344
248.14999389648438 -111.87000274658203 -506.19000244140625
371.55999755859375 -92.18000030517578 501.5799865722656
371.55999755859375 -92.18000030517578 485.55999755859375
371.55999755859375 -92.18000030517578 467.5400085449219
371.55999755859375 -92.18000030517578 451.5199890136719
371.55999755859375 -92.18000030517578 433.5
371.55999755859375 -92.18000030517578 417.4800109863281
371.55999755859375 -92.18000030517578 399.4599914550781
371.55999755859375 -92.18000030517578 383.44000244140625
371.55999755859375 -92.18000030517578 365.4200134277344
371.55999755859375 -92.18000030517578 349.3999938964844
371.55999755859375 -92.18000030517578 331.3800048828125
371.55999755859375 -92.18000030517578 315.3599853515625
371.55999755859375 -92.18000030517578 297.3299865722656
371.55999755859375 -92.18000030517578 281.30999755859375
371.55999755859375 -92.18000030517578 263.2900085449219
371.55999755859375 -92.18000030517578 247.27000427246094
371.55999755859375 -92.18000030517578 229.25
371.55999755859375 -92.18000030517578 213.22999572753906
371.55999755859375 -92.18000030517578 195.2100067138672
371.55999755859375 -92.18000030517578 179.19000244140625
371.55999755859375 -92.18000030517578 161.1699981689453
371.55999755859375 -92.18000030517578 145.14999389648438
371.55999755859375 -92.18000030517578 127.12999725341797
371.55999755859375 -92.18000030517578 111.11000061035156
371.55999755859375 -92.18000030517578 93.08999633789062
371.55999755859375 -92.18000030517578 77.06999969482422
371.55999755859375 -92.18000030517578 59.040000915527344
371.55999755859375 -92.18000030517578 43.02000045776367
371.55999755859375 -92.18000030517578 25.0
371.55999755859375 -92.18000030517578 8.979999542236328
371.55999755859375 -92.18000030517578 -9.039999961853027
371.55999755859375 -92.18000030517578 -25.059999465942383
371.55999755859375 -92.18000030517578 -43.08000183105469
371.55999755859375 -92.18000030517578 -59.099998474121094
371.55999755859375 -92.18000030517578 -77.12000274658203
371.55999755859375 -92.18000030517578 -93.13999938964844
371.55999755859375 -92.18000030517578 -111.16000366210938
371.55999755859375 -92.18000030517578 -127.18000030517578
371.55999755859375 -92.18000030517578 -145.2100067138672
371.55999755859375 -92.18000030517578 -161.22000122070312
371.55999755859375 -92.18000030517578 -179.25
371.55999755859375 -92.18000030517578 -195.27000427246094
371.55999755859375 -92.18000030517578 -213.2899932861328
371.55999755859375 -92.18000030517578 -229.30999755859375
371.55999755859375 -92.18000030517578 -247.3300018310547
371.55999755859375 -92.18000030517578 -263.3500061035156
371.55999755859375 -92.18000030517578 -281.3699951171875
371.55999755859375 -92.18000030517578 -297.3900146484375
371.55999755859375 -92.18000030517578 -315.4100036621094
371.55999755859375 -92.18000030517578 -331.42999267578125
371.55999755859375 -92.18000030517578 -349.45001220703125
371.55999755859375 -92.18000030517578 -365.4700012207031
371.55999755859375 -92.18000030517578 -383.5
371.55999755859375 -92.18000030517578 -399.5199890136719
371.55999755859375 -92.18000030517578 -417.5400085449219
371.55999755859375 -92.18000030517578 -433.55999755859375
371.55999755859375 -92.18000030517578 -451.5799865722656
371.55999755859375 -92.18000030517578 -467.6000061035156
371.55999755859375 -92.18000030517578 -485.6199951171875
371.55999755859375 -92.18000030517578 -501.6400146484375
500.42999267578125 -58.45000076293945 501.8500061035156
500.42999267578125 -58.45000076293945 484.8299865722656
500.42999267578125 -58.45000076293945 467.80999755859375
500.42999267578125 -58.45000076293945 450.7900085449219
500.42999267578125 -58.45000076293945 433.7699890136719
500.42999267578125 -58.45000076293945 416.75
500.42999267578125 -58.45000076293945 399.7300109863281
500.42999267578125 -58.45000076293945 382.7099914550781
500.42999267578125 -58.45000076293945 365.69000244140625
500.42999267578125 -58.45000076293945 348.6700134277344
500.42999267578125 -58.45000076293945 331.6499938964844
500.42999267578125 -58.45000076293945 314.6300048828125
500.42999267578125 -58.45000076293945 297.6099853515625
500.42999267578125 -58.45000076293945 280.5799865722656
500.42999267578125 -58.45000076293945 263.55999755859375
500.42999267578125 -58.45000076293945 246.5399932861328
500.42999267578125 -58.45000076293945 229.52000427246094
500.42999267578125 -58.45000076293945 212.5
500.42999267578125 -58.45000076293945 195.47999572753906
500.42999267578125 -58.45000076293945 178.4600067138672
500.42999267578125 -58.45000076293945 161.44000244140625
500.42999267578125 -58.45000076293945 144.4199981689453
500.42999267578125 -58.45000076293945 127.4000015258789
500.42999267578125 -58.45000076293945 110.37999725341797
500.42999267578125 -58.45000076293945 93.36000061035156
500.42999267578125 -58.45000076293945 76.33999633789062
500.42999267578125 -58.45000076293945 59.31999969482422
500.42999267578125 -58.45000076293945 42.290000915527344
500.42999267578125 -58.45000076293945 25.270000457763672
500.42999267578125 -58.45000076293945 8.25
500.42999267578125 -58.45000076293945 -8.770000457763672
500.42999267578125 -58.45000076293945 -25.790000915527344
500.42999267578125 -58.45000076293945 -42.810001373291016
500.42999267578125 -58.45000076293945 -59.83000183105469
500.42999267578125 -58.45000076293945 -76.8499984741211
500.42999267578125 -58.45000076293945 -93.87000274658203
500.42999267578125 -58.45000076293945 -110.88999938964844
500.42999267578125 -58.45000076293945 -127.91000366210938
500.42999267578125 -58.45000076293945 -144.92999267578125
500.42999267578125 -58.45000076293945 -161.9499969482422
500.42999267578125 -58.45000076293945 -178.97999572753906
500.42999267578125 -58.45000076293945 -196.0
500.42999267578125 -58.45000076293945 -213.02000427246094
500.42999267578125 -58.45000076293945 -230.0399932861328
500.42999267578125 -58.45000076293945 -247.05999755859375
500.42999267578125 -58.45000076293945 -264.0799865722656
500.42999267578125 -58.45000076293945 -281.1000061035156
500.42999267578125 -58.45000076293945 -298.1199951171875
500.42999267578125 -58.45000076293945 -315.1400146484375
500.42999267578125 -58.45000076293945 -332.1600036621094
500.42999267578125 -58.45000076293945 -349.17999267578125
500.42999267578125 -58.45000076293945 -366.20001220703125
500.42999267578125 -58.45000076293945 -383.2200012207031
500.42999267578125 -58.45000076293945 -400.25
500.42999267578125 -58.45000076293945 -417.2699890136719
500.42999267578125 -58.45000076293945 -434.2900085449219
500.42999267578125 -58.45000076293945 -451.30999755859375
500.42999267578125 -58.45000076293945 -468.3299865722656
500.42999267578125 -58.45000076293945 -485.3500061035156
500.42999267578125 -58.45000076293945 -502.3699951171875
-570.9000244140625 -125.13999938964844 499.6000061035156
-570.9000244140625 -125.13999938964844 482.5799865722656
-570.9000244140625 -125.13999938964844 465.55999755859375
-570.9000244140625 -125.13999938964844 448.5400085449219
-570.9000244140625 -125.13999938964844 431.5199890136719
-570.9000244140625 -125.13999938964844 414.5
-570.9000244140625 -125.13999938964844 397.4800109863281
-570.9000244140625 -125.13999938964844 380.4599914550781
-570.9000244140625 -125.13999938964844 363.44000244140625
-570.9000244140625 -125.13999938964844 346.4200134277344
-570.9000244140625 -125.13999938964844 329.3999938964844
-570.9000244140625 -125.13999938964844 312.3800048828125
-570.9000244140625 -125.13999938964844 295.3599853515625
-570.9000244140625 -125.13999938964844 278.3299865722656
-570.9000244140625 -125.13999938964844 261.30999755859375
-570.9000244140625 -125.13999938964844 244.2899932861328
-570.9000244140625 -125.13999938964844 227.27000427246094
-570.9000244140625 -125.13999938964844 210.25
-570.9000244140625 -125.13999938964844 193.22999572753906
-570.9000244140625 -125.13999938964844 176.2100067138672
-570.9000244140625 -125.13999938964844 159.19000244140625
-570.9000244140625 -125.13999938964844 142.1699981689453
-570.9000244140625 -125.13999938964844 125.1500015258789
-570.9000244140625 -125.13999938964844 108.12999725341797
-570.9000244140625 -125.13999938964844 91.11000061035156
-570.9000244140625 -125.13999938964844 74.08999633789062
-570.9000244140625 -125.13999938964844 57.06999969482422
-570.9000244140625 -125.13999938964844 40.040000915527344
-570.9000244140625 -125.13999938964844 23.020000457763672
-570.9000244140625 -125.13999938964844 6.0
-570.9000244140625 -125.13999938964844 -11.020000457763672
-570.9000244140625 -125.13999938964844 -28.040000915527344
-570.9000244140625 -125.13999938964844 -45.060001373291016
-570.9000244140625 -125.13999938964844 -62.08000183105469
-570.9000244140625 -125.13999938964844 -79.0999984741211
-570.9000244140625 -125.13999938964844 -96.12000274658203
-570.9000244140625 -125.13999938964844 -113.13999938964844
-570.9000244140625 -125.13999938964844 -130.16000366210938
-570.9000244140625 -125.13999938964844 -147.17999267578125
-570.9000244140625 -125.13999938964844 -164.1999969482422
-570.9000244140625 -125.13999938964844 -181.22999572753906
-570.9000244140625 -125.13999938964844 -198.25
-570.9000244140625 -125.13999938964844 -215.27000427246094
-570.9000244140625 -125.13999938964844 -232.2899932861328
-570.9000244140625 -125.13999938964844 -249.30999755859375
-570.9000244140625 -125.13999938964844 -266.3299865722656
-570.9000244140625 -125.13999938964844 -283.3500061035156
-570.9000244140625 -125.13999938964844 -300.3699951171875
-570.9000244140625 -125.13999938964844 -317.3900146484375
-570.9000244140625 -125.13999938964844 -334.4100036621094
-570.9000244140625 -125.13999938964844 -351.42999267578125
-570.9000244140625 -125.13999938964844 -368.45001220703125
-570.9000244140625 -125.13999938964844 -385.4700012207031
-570.9000244140625 -125.13999938964844 -402.5
-570.9000244140625 -125.13999938964844 -419.5199890136719
-570.9000244140625 -125.13999938964844 -436.5400085449219
-570.9000244140625 -125.13999938964844 -453.55999755859375
-570.9000244140625 -125.13999938964844 -470.5799865722656
-570.9000244140625 -125.13999938964844 -487.6000061035156
-570.9000244140625 -125.13999938964844 -504.6199951171875
-447.739990234375 -113.12999725341797 500.6700134277344
-447.739990234375 -113.12999725341797 483.6499938964844
-447.739990234375 -113.12999725341797 466.6300048828125
-447.739990234375 -113.12999725341797 449.6099853515625
-447.739990234375 -113.12999725341797 432.5899963378906
-447.739990234375 -113.12999725341797 415.57000732421875
-447.739990234375 -113.12999725341797 398.54998779296875
-447.739990234375 -113.12999725341797 381.5299987792969
-447.739990234375 -113.12999725341797 364.510009765625
-447.739990234375 -113.12999725341797 347.489990234375
-447.739990234375 -113.12999725341797 330.4700012207031
-447.739990234375 -113.12999725341797 313.45001220703125
-447.739990234375 -113.12999725341797 296.42999267578125
-447.739990234375 -113.12999725341797 279.3999938964844
-447.739990234375 -113.12999725341797 262.3800048828125
-447.739990234375 -113.12999725341797 245.36000061035156
-447.739990234375 -113.12999725341797 228.33999633789062
-447.739990234375 -113.12999725341797 211.32000732421875
-447.739990234375 -113.12999725341797 194.3000030517578
-447.739990234375 -113.12999725341797 177.27999877929688
-447.739990234375 -113.12999725341797 160.25999450683594
-447.739990234375 -113.12999725341797 143.24000549316406
-447.739990234375 -113.12999725341797 126.22000122070312
-447.739990234375 -113.12999725341797 109.19999694824219
-447.739990234375 -113.12999725341797 92.18000030517578
-447.739990234375 -113.12999725341797 75.16000366210938
-447.739990234375 -113.12999725341797 58.13999938964844
