-256.1400146484375	-521.0800170898438	496.0299987792969	-256.1400146484375	-521.0800170898438	-504.3999938964844
-132.8000030517578	-501.45001220703125	500.07000732421875	-132.8000030517578	-501.45001220703125	-504.1499938964844
-9.130000114440918	-481.739990234375	499.2300109863281	-9.130000114440918	-481.739990234375	-504.989990234375
114.38999938964844	-461.989990234375	498.6600036621094	114.38999938964844	-461.989990234375	-505.55999755859375
237.77999877929688	-442.4200134277344	501.4599914550781	237.77999877929688	-442.4200134277344	-502.760009765625
361.0	-422.8299865722656	499.510009765625	361.0	-422.8299865722656	-504.7099914550781
-334.79998779296875	-424.5	500.5899963378906	-334.79998779296875	-424.5	-503.6300048828125
-211.35000610351562	-404.4800109863281	498.6300048828125	-211.35000610351562	-404.4800109863281	-507.3999938964844
-88.05000305175781	-384.29998779296875	500.0199890136719	-88.05000305175781	-384.29998779296875	-504.8299865722656
35.540000915527344	-364.8299865722656	497.7099914550781	35.540000915527344	-364.8299865722656	-506.510009765625
158.94000244140625	-345.2300109863281	499.8299865722656	158.94000244140625	-345.2300109863281	-504.3900146484375
282.17999267578125	-325.739990234375	498.44000244140625	282.17999267578125	-325.739990234375	-505.7799987792969
405.8299865722656	-306.3800048828125	495.1300048828125	405.8299865722656	-306.3800048828125	-509.0899963378906
-413.4599914550781	-327.2699890136719	499.5899963378906	-413.4599914550781	-327.2699890136719	-504.6300048828125
-290.6600036621094	-307.3800048828125	504.0199890136719	-290.6600036621094	-307.3800048828125	-500.0799865722656
-166.39999389648438	-287.7900085449219	497.7799987792969	-166.39999389648438	-287.7900085449219	-506.44000244140625
-43.27000045776367	-267.5199890136719	500.42999267578125	-43.27000045776367	-267.5199890136719	-504.1000061035156
79.41000366210938	-248.24000549316406	498.8999938964844	79.41000366210938	-248.24000549316406	-505.32000732421875
210.47000122070312	-209.77000427246094	496.94000244140625	210.47000122070312	-209.77000427246094	-507.2799987792969
326.8500061035156	-209.07000732421875	498.4200134277344	326.8500061035156	-209.07000732421875	-505.79998779296875
443.6000061035156	-194.16000366210938	516.6699829101562	444.04998779296875	-194.4600067138672	-487.54998779296875
-492.42999267578125	-230.16000366210938	497.6000061035156	-492.42999267578125	-230.16000366210938	-506.6199951171875
-368.92999267578125	-210.22999572753906	500.5299987792969	-368.92999267578125	-210.22999572753906	-503.69000244140625
-245.64999389648438	-190.49000549316406	501.4800109863281	-245.64999389648438	-190.49000549316406	-502.010009765625
-121.7699966430664	-171.02999877929688	502.2699890136719	-121.7699966430664	-171.02999877929688	-501.55999755859375
1.7100000381469727	-150.6300048828125	497.25	1.7100000381469727	-150.6300048828125	-506.9700012207031
124.97000122070312	-131.25	493.6499938964844	124.97000122070312	-131.25	-510.57000732421875
248.14999389648438	-111.87000274658203	498.3399963378906	248.14999389648438	-111.87000274658203	-506.19000244140625
371.55999755859375	-92.18000030517578	501.5799865722656	371.55999755859375	-92.18000030517578	-501.6400146484375
500.42999267578125	-58.45000076293945	501.8500061035156	500.42999267578125	-58.45000076293945	-502.3699951171875
-570.9000244140625	-125.13999938964844	499.6000061035156	-570.9000244140625	-125.13999938964844	-504.6199951171875
-447.739990234375	-113.12999725341797	500.6700134277344	-447.739990234375	-113.12999725341797	-503.54998779296875
-324.3900146484375	-93.43000030517578	500.1300048828125	-324.3900146484375	-93.43000030517578	-504.0899963378906
-200.5500030517578	-74.02999877929688	523.4199829101562	-200.5500030517578	-74.02999877929688	-480.79998779296875
-77.80000305175781	-54.33000183105469	502.70001220703125	-77.80000305175781	-54.33000183105469	-501.5199890136719
46.290000915527344	-34.880001068115234	500.9700012207031	46.290000915527344	-34.880001068115234	-503.25
194.33999633789062	-30.920000076293945	504.0899963378906	194.33999633789062	-30.920000076293945	-500.1300048828125
292.8999938964844	5.199999809265137	491.3999938964844	292.8999938964844	5.199999809265137	-512.8200073242188
411.80999755859375	13.0	501.7300109863281	411.80999755859375	13.0	-502.489990234375
544.0700073242188	55.88999938964844	502.7900085449219	544.0700073242188	55.88999938964844	-502.1400146484375
-526.6300048828125	-15.600000381469727	502.6700134277344	-526.6300048828125	-15.600000381469727	-502.010009765625
-403.1400146484375	3.490000009536743	501.79998779296875	-403.1400146484375	3.490000009536743	-502.4200134277344
-279.5299987792969	23.170000076293945	502.6099853515625	-279.5299987792969	23.170000076293945	-503.4200134277344
-156.22999572753906	43.369998931884766	500.8399963378906	-156.22999572753906	43.369998931884766	-503.8900146484375
-32.959999084472656	62.439998626708984	495.80999755859375	-32.959999084472656	62.439998626708984	-508.4100036621094
90.48999786376953	82.3499984741211	501.6600036621094	90.48999786376953	82.3499984741211	-502.55999755859375
195.02999877929688	125.58999633789062	501.8299865722656	195.02999877929688	125.58999633789062	-502.3900146484375
330.0299987792969	127.19999694824219	500.8699951171875	330.0299987792969	127.19999694824219	-504.8599853515625
472.04998779296875	127.9000015258789	504.2699890136719	472.04998779296875	127.9000015258789	-499.95001220703125
576.3699951171875	170.9199981689453	494.0400085449219	576.3699951171875	170.9199981689453	-510.17999267578125
-481.6000061035156	101.38999938964844	502.04998779296875	-481.6000061035156	101.38999938964844	-501.94000244140625
-358.44000244140625	120.55999755859375	498.05999755859375	-358.44000244140625	120.55999755859375	-506.1600036621094
-234.9499969482422	140.44000244140625	500.05999755859375	-234.9499969482422	140.44000244140625	-504.1600036621094
-111.51000213623047	159.97999572753906	500.5299987792969	-111.51000213623047	159.97999572753906	-503.69000244140625
11.869999885559082	179.19000244140625	502.3399963378906	11.869999885559082	179.19000244140625	-501.5799865722656
132.02999877929688	202.97999572753906	502.739990234375	132.02999877929688	202.97999572753906	-502.3900146484375
257.30999755859375	211.66000366210938	504.42999267578125	257.30999755859375	211.66000366210938	-500.20001220703125
382.3500061035156	238.89999389648438	498.5400085449219	382.3500061035156	238.89999389648438	-505.67999267578125
505.2699890136719	257.8800048828125	506.2300109863281	505.2699890136719	257.8800048828125	-497.989990234375
-437.0400085449219	217.8000030517578	501.4700012207031	-437.0400085449219	217.8000030517578	-503.4599914550781
-313.6000061035156	237.44000244140625	501.19000244140625	-313.6000061035156	237.44000244140625	-503.0299987792969
-189.97999572753906	257.4200134277344	501.3500061035156	-189.97999572753906	257.4200134277344	-502.8699951171875
-66.69999694824219	276.9200134277344	497.82000732421875	-66.69999694824219	276.9200134277344	-506.3999938964844
54.2599983215332	292.9700012207031	524.5599975585938	54.2599983215332	292.9700012207031	-480.07000732421875
174.47000122070312	315.5400085449219	512.739990234375	174.47000122070312	315.5400085449219	-491.4800109863281
303.4100036621094	335.6400146484375	512.9500122070312	303.4100036621094	335.6400146484375	-491.2699890136719
429.760009765625	351.0199890136719	506.1400146484375	429.760009765625	351.0199890136719	-498.0799865722656
-392.3800048828125	334.239990234375	502.7900085449219	-392.3800048828125	334.239990234375	-501.42999267578125
-268.8999938964844	354.239990234375	501.5400085449219	-268.8999938964844	354.239990234375	-502.8900146484375
-145.4499969482422	374.239990234375	502.0899963378906	-145.4499969482422	374.239990234375	-503.1400146484375
-21.969999313354492	393.239990234375	499.80999755859375	-21.969999313354492	393.239990234375	-504.4100036621094
101.04000091552734	412.7900085449219	504.4200134277344	101.04000091552734	412.7900085449219	-500.510009765625
224.5800018310547	432.3500061035156	497.05999755859375	224.5800018310547	432.3500061035156	-507.1600036621094
338.44000244140625	463.7200012207031	505.7200012207031	338.44000244140625	463.7200012207031	-498.5
-347.8800048828125	451.5199890136719	502.010009765625	-347.8800048828125	451.5199890136719	-502.6199951171875
-224.08999633789062	470.8599853515625	502.4200134277344	-224.08999633789062	470.8599853515625	-501.79998779296875
-101.05999755859375	490.2200012207031	501.489990234375	-101.05999755859375	490.2200012207031	-503.239990234375
22.110000610351562	509.5	504.6600036621094	22.110000610351562	509.5	-499.55999755859375
31.25	-72.93000030517578	188.2899932861328	31.25	-72.93000030517578	98.18000030517578
31.25	-72.93000030517578	-159.1300048828125	31.25	-72.93000030517578	-503.4200134277344
72.37000274658203	-66.5999984741211	187.58999633789062	72.37000274658203	-66.5999984741211	97.4800033569336
72.37000274658203	-66.5999984741211	-159.8300018310547	72.37000274658203	-66.5999984741211	-503.6300048828125
41.599998474121094	35.4900016784668	189.52000427246094	41.599998474121094	35.4900016784668	99.41000366210938
41.599998474121094	35.4900016784668	-157.89999389648438	41.599998474121094	35.4900016784668	-501.6099853515625
106.94000244140625	27.09000015258789	186.66000366210938	106.94000244140625	27.09000015258789	96.55000305175781
106.94000244140625	27.09000015258789	-160.75999450683594	106.94000244140625	27.09000015258789	-503.6199951171875
113.19000244140625	-60.470001220703125	186.32000732421875	113.19000244140625	-60.470001220703125	96.20999908447266
113.19000244140625	-60.470001220703125	-161.10000610351562	113.19000244140625	-60.470001220703125	-505.4100036621094
57.20000076293945	-105.5199966430664	186.02000427246094	57.20000076293945	-105.5199966430664	95.91000366210938
57.20000076293945	-105.5199966430664	-161.39999389648438	57.20000076293945	-105.5199966430664	-504.29998779296875
-9.680000305175781	-79.5	191.00999450683594	-9.680000305175781	-79.5	100.9000015258789
-9.680000305175781	-79.5	-156.41000366210938	-9.680000305175781	-79.5	-499.2799987792969
-10.970000267028809	6.71999979019165	190.4199981689453	-10.970000267028809	6.71999979019165	100.30999755859375
-10.970000267028809	6.71999979019165	-157.0	-10.970000267028809	6.71999979019165	-500.7300109863281
